x,y,z,classification,gpstime,scan_angle,intensity,number_of_returns,return_number,point_source_ID,edge_of_flight_line_flag,direction_of_scan_flag,user_data,red_channel,green_channel,blue_channel
1293527.190,5044352.960,314.870,2,353621313.074309,-15,9472,1,1,8,0,0,0,0,0,0
1293526.720,5044353.240,314.840,2,353621313.074316,-15,9216,1,1,8,0,0,0,0,0,0
1293526.250,5044353.520,314.820,2,353621313.074323,-15,10240,1,1,8,0,0,0,0,0,0
1293525.780,5044353.800,314.830,2,353621313.074330,-15,9984,1,1,8,0,0,0,0,0,0
1293525.300,5044354.090,314.810,2,353621313.074337,-15,10240,1,1,8,0,0,0,0,0,0
1293524.840,5044354.360,314.840,2,353621313.074343,-15,9216,1,1,8,0,0,0,0,0,0
1293524.380,5044354.630,314.800,2,353621313.074350,-15,9728,1,1,8,0,0,0,0,0,0
1293523.910,5044354.910,314.800,2,353621313.074357,-15,9216,1,1,8,0,0,0,0,0,0
1293523.440,5044355.190,314.760,2,353621313.074364,-15,8960,1,1,8,0,0,0,0,0,0
1293522.980,5044355.460,314.760,2,353621313.074371,-15,9472,1,1,8,0,0,0,0,0,0
1293522.520,5044355.740,314.740,2,353621313.074377,-15,9216,1,1,8,0,0,0,0,0,0
1293522.060,5044356.010,314.710,2,353621313.074384,-15,9216,1,1,8,0,0,0,0,0,0
1293521.600,5044356.280,314.710,2,353621313.074391,-15,9984,1,1,8,0,0,0,0,0,0
1293521.140,5044356.550,314.700,2,353621313.074398,-15,9984,1,1,8,0,0,0,0,0,0
1293520.690,5044356.830,314.680,2,353621313.074405,-15,9472,1,1,8,0,0,0,0,0,0
1293520.240,5044357.090,314.690,2,353621313.074411,-15,10496,1,1,8,0,0,0,0,0,0
1293519.790,5044357.360,314.690,2,353621313.074418,-15,10240,1,1,8,0,0,0,0,0,0
1293519.340,5044357.630,314.640,2,353621313.074425,-15,11008,1,1,8,0,0,0,0,0,0
1293518.880,5044357.900,314.630,2,353621313.074432,-15,10240,1,1,8,0,0,0,0,0,0
1293518.440,5044358.160,314.620,2,353621313.074439,-15,11008,1,1,8,0,0,0,0,0,0
1293518.000,5044358.420,314.600,2,353621313.074445,-16.002,10496,1,1,8,0,0,0,0,0,0
1293517.560,5044358.690,314.620,2,353621313.074452,-16.002,9728,1,1,8,0,0,0,0,0,0
1293517.120,5044358.950,314.600,2,353621313.074459,-16.002,9472,1,1,8,0,0,0,0,0,0
1293516.670,5044359.210,314.600,2,353621313.074466,-16.002,9984,1,1,8,0,0,0,0,0,0
1293516.240,5044359.470,314.600,2,353621313.074473,-16.002,11264,1,1,8,0,0,0,0,0,0
1293515.810,5044359.720,314.590,2,353621313.074480,-16.002,10240,1,1,8,0,0,0,0,0,0
1293515.370,5044359.990,314.570,2,353621313.074486,-16.002,11776,1,1,8,0,0,0,0,0,0
1293514.940,5044360.240,314.580,2,353621313.074493,-16.002,11008,1,1,8,0,0,0,0,0,0
1293514.500,5044360.510,314.540,2,353621313.074500,-16.002,10240,1,1,8,0,0,0,0,0,0
1293514.070,5044360.760,314.540,2,353621313.074507,-16.002,13824,1,1,8,0,0,0,0,0,0
1293513.640,5044361.020,314.490,2,353621313.074513,-16.002,15104,1,1,8,0,0,0,0,0,0
1293513.220,5044361.260,314.510,2,353621313.074520,-16.002,12544,1,1,8,0,0,0,0,0,0
1293512.780,5044361.530,314.450,2,353621313.074527,-16.002,13824,1,1,8,0,0,0,0,0,0
1293512.350,5044361.780,314.430,2,353621313.074534,-16.002,12800,1,1,8,0,0,0,0,0,0
1293511.930,5044362.030,314.410,2,353621313.074541,-16.002,12544,1,1,8,0,0,0,0,0,0
1293511.510,5044362.280,314.420,2,353621313.074548,-16.002,14336,1,1,8,0,0,0,0,0,0
1293511.090,5044362.530,314.380,2,353621313.074554,-16.002,16384,1,1,8,0,0,0,0,0,0
1293510.660,5044362.790,314.360,2,353621313.074561,-16.002,15616,1,1,8,0,0,0,0,0,0
1293510.250,5044363.030,314.360,2,353621313.074568,-16.002,14336,1,1,8,0,0,0,0,0,0
1293509.840,5044363.280,314.340,2,353621313.074575,-16.002,14848,1,1,8,0,0,0,0,0,0
1293509.420,5044363.530,314.290,2,353621313.074582,-16.002,15360,1,1,8,0,0,0,0,0,0
1293509.010,5044363.770,314.290,2,353621313.074588,-16.002,14336,1,1,8,0,0,0,0,0,0
1293508.600,5044364.020,314.270,2,353621313.074595,-16.002,13824,1,1,8,0,0,0,0,0,0
1293508.190,5044364.260,314.250,2,353621313.074602,-16.002,13824,1,1,8,0,0,0,0,0,0
1293507.780,5044364.500,314.240,2,353621313.074609,-16.002,14080,1,1,8,0,0,0,0,0,0
1293507.390,5044364.730,314.270,2,353621313.074615,-16.002,15872,1,1,8,0,0,0,0,0,0
1293506.980,5044364.980,314.230,2,353621313.074622,-16.002,14592,1,1,8,0,0,0,0,0,0
1293506.580,5044365.210,314.240,2,353621313.074629,-16.002,15616,1,1,8,0,0,0,0,0,0
1293506.170,5044365.460,314.190,2,353621313.074636,-16.002,15360,1,1,8,0,0,0,0,0,0
1293505.780,5044365.690,314.180,2,353621313.074643,-16.002,14848,1,1,8,0,0,0,0,0,0
1293505.380,5044365.930,314.140,2,353621313.074650,-16.002,15616,1,1,8,0,0,0,0,0,0
1293504.990,5044366.160,314.170,2,353621313.074656,-16.002,14080,1,1,8,0,0,0,0,0,0
1293504.590,5044366.400,314.120,2,353621313.074663,-16.002,13824,1,1,8,0,0,0,0,0,0
1293504.200,5044366.630,314.120,2,353621313.074670,-16.002,12544,1,1,8,0,0,0,0,0,0
1293503.810,5044366.870,314.080,2,353621313.074677,-16.002,13312,1,1,8,0,0,0,0,0,0
1293503.420,5044367.100,314.040,2,353621313.074684,-16.002,12800,1,1,8,0,0,0,0,0,0
1293503.020,5044367.340,314.040,2,353621313.074690,-16.002,12288,1,1,8,0,0,0,0,0,0
1293502.670,5044367.540,314.110,2,353621313.074697,-16.002,10240,1,1,8,0,0,0,0,0,0
1293502.330,5044367.730,314.350,3,353621313.074704,-16.002,8448,1,1,8,0,0,0,0,0,0
1293501.930,5044367.970,314.270,3,353621313.074711,-16.002,8448,1,1,8,0,0,0,0,0,0
1293501.530,5044368.220,314.140,2,353621313.074718,-16.002,8704,1,1,8,0,0,0,0,0,0
1293501.170,5044368.430,314.160,3,353621313.074724,-16.002,8960,1,1,8,0,0,0,0,0,0
1293500.760,5044368.680,314.040,2,353621313.074731,-16.002,10240,1,1,8,0,0,0,0,0,0
1293500.400,5044368.890,314.100,2,353621313.074738,-16.002,10496,1,1,8,0,0,0,0,0,0
1293500.030,5044369.110,314.110,2,353621313.074745,-16.002,9728,1,1,8,0,0,0,0,0,0
1293500.420,5044368.750,317.510,4,353621313.074752,-16.002,4096,1,1,8,0,0,0,0,0,0
1293500.190,5044368.860,318.130,4,353621313.074759,-16.002,9216,1,1,8,0,0,0,0,0,0
1293499.880,5044369.040,318.370,4,353621313.074765,-16.002,5632,1,1,8,0,0,0,0,0,0
1293499.510,5044369.260,318.310,4,353621313.074772,-16.002,2048,1,1,8,0,0,0,0,0,0
1293498.670,5044369.840,316.180,4,353621313.074779,-16.002,7168,1,1,8,0,0,0,0,0,0
1293498.440,5044369.950,316.780,4,353621313.074786,-16.002,9216,1,1,8,0,0,0,0,0,0
1293498.150,5044370.120,317.040,4,353621313.074792,-16.002,3840,2,1,8,0,0,0,0,0,0
1293497.300,5044370.760,313.260,3,353621313.074792,-16.002,6656,2,2,8,0,0,0,0,0,0
1293496.950,5044370.970,313.250,3,353621313.074799,-16.002,11008,1,1,8,0,0,0,0,0,0
1293496.410,5044371.320,312.470,2,353621313.074806,-16.002,11520,1,1,8,0,0,0,0,0,0
1293496.010,5044371.570,312.220,2,353621313.074813,-16.002,10240,1,1,8,0,0,0,0,0,0
1293495.640,5044371.790,312.170,2,353621313.074820,-16.002,11008,1,1,8,0,0,0,0,0,0
1293495.290,5044371.990,312.180,2,353621313.074826,-16.002,10240,1,1,8,0,0,0,0,0,0
1293494.950,5044372.200,312.200,2,353621313.074833,-16.002,10496,1,1,8,0,0,0,0,0,0
1293494.600,5044372.400,312.190,2,353621313.074840,-16.002,10752,1,1,8,0,0,0,0,0,0
1293494.260,5044372.610,312.210,2,353621313.074847,-16.002,10240,1,1,8,0,0,0,0,0,0
1293493.920,5044372.800,312.220,2,353621313.074854,-16.998,9984,1,1,8,0,0,0,0,0,0
1293493.580,5044373.010,312.230,2,353621313.074861,-16.998,10496,1,1,8,0,0,0,0,0,0
1293493.240,5044373.210,312.240,2,353621313.074867,-16.998,10240,1,1,8,0,0,0,0,0,0
1293492.910,5044373.400,312.260,2,353621313.074874,-16.998,8448,1,1,8,0,0,0,0,0,0
1293492.590,5044373.600,312.260,2,353621313.074881,-16.998,6912,1,1,8,0,0,0,0,0,0
1293492.390,5044373.680,312.970,3,353621313.074888,-16.998,9728,1,1,8,0,0,0,0,0,0
1293492.110,5044373.850,313.150,3,353621313.074894,-16.998,15104,1,1,8,0,0,0,0,0,0
1293491.850,5044373.990,313.480,3,353621313.074901,-16.998,16128,1,1,8,0,0,0,0,0,0
1293491.580,5044374.140,313.740,3,353621313.074908,-16.998,17408,1,1,8,0,0,0,0,0,0
1293491.270,5044374.320,313.800,3,353621313.074915,-16.998,15872,1,1,8,0,0,0,0,0,0
1293490.950,5044374.510,313.790,3,353621313.074922,-16.998,11520,1,1,8,0,0,0,0,0,0
1293491.310,5044374.470,313.880,3,353621313.077242,-16.998,19200,1,1,8,0,0,0,0,0,0
1293491.630,5044374.280,313.850,3,353621313.077249,-16.998,19200,1,1,8,0,0,0,0,0,0
1293491.890,5044374.140,313.580,3,353621313.077255,-16.998,19712,1,1,8,0,0,0,0,0,0
1293492.180,5044373.980,313.330,3,353621313.077262,-16.998,19456,1,1,8,0,0,0,0,0,0
1293492.460,5044373.820,313.120,3,353621313.077269,-16.998,15872,1,1,8,0,0,0,0,0,0
1293492.640,5044373.740,312.380,3,353621313.077276,-16.998,8192,1,1,8,0,0,0,0,0,0
1293492.950,5044373.560,312.270,2,353621313.077283,-16.998,9472,1,1,8,0,0,0,0,0,0
1293493.290,5044373.360,312.280,2,353621313.077290,-16.998,11520,1,1,8,0,0,0,0,0,0
1293493.620,5044373.170,312.260,2,353621313.077296,-16.998,11264,1,1,8,0,0,0,0,0,0
1293493.960,5044372.970,312.250,2,353621313.077303,-16.998,11264,1,1,8,0,0,0,0,0,0
1293494.320,5044372.760,312.270,2,353621313.077310,-16.002,11008,1,1,8,0,0,0,0,0,0
1293494.660,5044372.550,312.250,2,353621313.077317,-16.002,11264,1,1,8,0,0,0,0,0,0
1293495.000,5044372.350,312.220,2,353621313.077323,-16.002,10752,1,1,8,0,0,0,0,0,0
1293495.350,5044372.140,312.210,2,353621313.077330,-16.002,11008,1,1,8,0,0,0,0,0,0
1293495.700,5044371.940,312.230,2,353621313.077337,-16.002,12288,1,1,8,0,0,0,0,0,0
1293496.070,5044371.720,312.250,2,353621313.077344,-16.002,11776,1,1,8,0,0,0,0,0,0
1293496.480,5044371.460,312.540,2,353621313.077351,-16.002,14080,1,1,8,0,0,0,0,0,0
1293496.980,5044371.150,313.120,3,353621313.077358,-16.002,15360,1,1,8,0,0,0,0,0,0
1293498.160,5044370.310,316.820,4,353621313.077364,-16.002,1024,1,1,8,0,0,0,0,0,0
1293498.480,5044370.130,316.630,4,353621313.077371,-16.002,6912,1,1,8,0,0,0,0,0,0
1293498.750,5044369.980,316.260,4,353621313.077378,-16.002,6144,1,1,8,0,0,0,0,0,0
1293499.560,5044369.430,318.250,4,353621313.077385,-16.002,512,2,1,8,0,0,0,0,0,0
1293498.590,5044370.170,313.870,3,353621313.077385,-16.002,11264,2,2,8,0,0,0,0,0,0
1293499.920,5044369.220,318.200,4,353621313.077392,-16.002,2560,1,1,8,0,0,0,0,0,0
1293500.240,5044369.040,317.990,4,353621313.077398,-16.002,9984,1,1,8,0,0,0,0,0,0
1293500.420,5044368.970,317.130,4,353621313.077405,-16.002,2816,1,1,8,0,0,0,0,0,0
1293500.130,5044369.250,314.170,3,353621313.077412,-16.002,12544,1,1,8,0,0,0,0,0,0
1293500.490,5044369.040,314.130,2,353621313.077419,-16.002,10752,1,1,8,0,0,0,0,0,0
1293500.870,5044368.810,314.120,3,353621313.077425,-16.002,9984,1,1,8,0,0,0,0,0,0
1293501.260,5044368.580,314.170,3,353621313.077432,-16.002,9472,1,1,8,0,0,0,0,0,0
1293501.640,5044368.360,314.210,3,353621313.077439,-16.002,10752,1,1,8,0,0,0,0,0,0
1293502.050,5044368.110,314.330,3,353621313.077446,-16.002,9728,1,1,8,0,0,0,0,0,0
1293502.420,5044367.890,314.290,3,353621313.077453,-16.002,9728,1,1,8,0,0,0,0,0,0
1293502.780,5044367.680,314.160,3,353621313.077460,-16.002,13568,1,1,8,0,0,0,0,0,0
1293503.140,5044367.470,314.070,3,353621313.077466,-16.002,14080,1,1,8,0,0,0,0,0,0
1293503.520,5044367.250,314.040,2,353621313.077473,-16.002,14848,1,1,8,0,0,0,0,0,0
1293503.920,5044367.010,314.070,2,353621313.077480,-16.002,15360,1,1,8,0,0,0,0,0,0
1293504.320,5044366.780,314.120,2,353621313.077487,-16.002,13824,1,1,8,0,0,0,0,0,0
1293504.700,5044366.550,314.120,2,353621313.077494,-16.002,15872,1,1,8,0,0,0,0,0,0
1293505.110,5044366.310,314.140,2,353621313.077500,-16.002,16384,1,1,8,0,0,0,0,0,0
1293505.510,5044366.070,314.140,2,353621313.077507,-16.002,16640,1,1,8,0,0,0,0,0,0
1293505.910,5044365.830,314.190,2,353621313.077514,-16.002,16384,1,1,8,0,0,0,0,0,0
1293506.310,5044365.600,314.190,2,353621313.077521,-16.002,16640,1,1,8,0,0,0,0,0,0
1293506.720,5044365.350,314.250,2,353621313.077528,-16.002,16128,1,1,8,0,0,0,0,0,0
1293507.130,5044365.110,314.240,2,353621313.077534,-16.002,16384,1,1,8,0,0,0,0,0,0
1293507.530,5044364.870,314.240,2,353621313.077541,-16.002,17152,1,1,8,0,0,0,0,0,0
1293507.930,5044364.640,314.250,2,353621313.077548,-16.002,15616,1,1,8,0,0,0,0,0,0
1293508.350,5044364.390,314.280,2,353621313.077555,-16.002,16640,1,1,8,0,0,0,0,0,0
1293508.750,5044364.150,314.260,2,353621313.077562,-16.002,17152,1,1,8,0,0,0,0,0,0
1293509.170,5044363.900,314.300,2,353621313.077569,-16.002,15872,1,1,8,0,0,0,0,0,0
1293509.580,5044363.660,314.300,2,353621313.077575,-16.002,16896,1,1,8,0,0,0,0,0,0
1293510.000,5044363.410,314.320,2,353621313.077582,-16.002,15872,1,1,8,0,0,0,0,0,0
1293510.430,5044363.160,314.350,2,353621313.077589,-16.002,15360,1,1,8,0,0,0,0,0,0
1293510.840,5044362.910,314.370,2,353621313.077596,-16.002,15872,1,1,8,0,0,0,0,0,0
1293511.270,5044362.660,314.390,2,353621313.077602,-16.002,15360,1,1,8,0,0,0,0,0,0
1293511.690,5044362.410,314.410,2,353621313.077609,-16.002,14848,1,1,8,0,0,0,0,0,0
1293512.120,5044362.160,314.420,2,353621313.077616,-16.002,13568,1,1,8,0,0,0,0,0,0
1293512.550,5044361.900,314.450,2,353621313.077623,-16.002,15360,1,1,8,0,0,0,0,0,0
1293512.970,5044361.650,314.460,2,353621313.077630,-16.002,14080,1,1,8,0,0,0,0,0,0
1293513.410,5044361.390,314.500,2,353621313.077636,-16.002,14848,1,1,8,0,0,0,0,0,0
1293513.840,5044361.130,314.500,2,353621313.077643,-16.002,14336,1,1,8,0,0,0,0,0,0
1293514.280,5044360.880,314.530,2,353621313.077650,-16.002,13568,1,1,8,0,0,0,0,0,0
1293514.710,5044360.620,314.530,2,353621313.077657,-16.002,12288,1,1,8,0,0,0,0,0,0
1293515.150,5044360.360,314.550,2,353621313.077664,-16.002,11776,1,1,8,0,0,0,0,0,0
1293515.580,5044360.100,314.550,2,353621313.077671,-16.002,12032,1,1,8,0,0,0,0,0,0
1293516.030,5044359.840,314.590,2,353621313.077677,-16.002,11264,1,1,8,0,0,0,0,0,0
1293516.470,5044359.570,314.610,2,353621313.077684,-16.002,11776,1,1,8,0,0,0,0,0,0
1293516.910,5044359.320,314.590,2,353621313.077691,-16.002,10496,1,1,8,0,0,0,0,0,0
1293517.350,5044359.050,314.590,2,353621313.077698,-16.002,10752,1,1,8,0,0,0,0,0,0
1293517.800,5044358.790,314.620,2,353621313.077704,-16.002,11264,1,1,8,0,0,0,0,0,0
1293518.250,5044358.530,314.600,2,353621313.077711,-16.002,11264,1,1,8,0,0,0,0,0,0
1293518.700,5044358.260,314.630,2,353621313.077718,-15,11264,1,1,8,0,0,0,0,0,0
1293519.150,5044357.990,314.640,2,353621313.077725,-15,11264,1,1,8,0,0,0,0,0,0
1293519.600,5044357.720,314.640,2,353621313.077732,-15,10752,1,1,8,0,0,0,0,0,0
1293520.050,5044357.460,314.650,2,353621313.077739,-15,10752,1,1,8,0,0,0,0,0,0
1293520.510,5044357.180,314.700,2,353621313.077745,-15,10496,1,1,8,0,0,0,0,0,0
1293520.970,5044356.910,314.720,2,353621313.077752,-15,9984,1,1,8,0,0,0,0,0,0
1293521.430,5044356.640,314.700,2,353621313.077759,-15,9984,1,1,8,0,0,0,0,0,0
1293521.880,5044356.370,314.700,2,353621313.077766,-15,9984,1,1,8,0,0,0,0,0,0
1293522.350,5044356.100,314.720,2,353621313.077773,-15,10496,1,1,8,0,0,0,0,0,0
1293522.820,5044355.820,314.740,2,353621313.077779,-15,10496,1,1,8,0,0,0,0,0,0
1293523.280,5044355.550,314.760,2,353621313.077786,-15,10240,1,1,8,0,0,0,0,0,0
1293523.750,5044355.260,314.790,2,353621313.077793,-15,10240,1,1,8,0,0,0,0,0,0
1293524.220,5044354.990,314.800,2,353621313.077800,-15,10240,1,1,8,0,0,0,0,0,0
1293524.690,5044354.710,314.790,2,353621313.077807,-15,9984,1,1,8,0,0,0,0,0,0
1293525.160,5044354.430,314.830,2,353621313.077813,-15,9984,1,1,8,0,0,0,0,0,0
1293525.630,5044354.150,314.820,2,353621313.077820,-15,11264,1,1,8,0,0,0,0,0,0
1293526.110,5044353.870,314.840,2,353621313.077827,-15,11264,1,1,8,0,0,0,0,0,0
1293526.580,5044353.590,314.830,2,353621313.077834,-15,11264,1,1,8,0,0,0,0,0,0
1293527.070,5044353.300,314.870,2,353621313.077841,-15,10240,1,1,8,0,0,0,0,0,0
1293527.540,5044353.030,314.830,2,353621313.077847,-15,10240,1,1,8,0,0,0,0,0,0
1293528.020,5044352.740,314.850,2,353621313.077854,-15,10496,1,1,8,0,0,0,0,0,0
1293528.500,5044352.460,314.840,2,353621313.077861,-15,10240,1,1,8,0,0,0,0,0,0
1293528.980,5044352.170,314.840,2,353621313.077868,-15,11520,1,1,8,0,0,0,0,0,0
1293529.460,5044351.890,314.830,2,353621313.077875,-15,11008,1,1,8,0,0,0,0,0,0
1293529.520,5044352.860,314.840,2,353621313.094211,-15,6400,1,1,8,0,0,0,0,0,0
1293529.040,5044353.150,314.830,2,353621313.094218,-15,6400,1,1,8,0,0,0,0,0,0
1293528.570,5044353.420,314.830,2,353621313.094224,-15,7168,1,1,8,0,0,0,0,0,0
1293528.090,5044353.710,314.810,2,353621313.094231,-15,6912,1,1,8,0,0,0,0,0,0
1293527.620,5044353.990,314.820,2,353621313.094238,-15,7168,1,1,8,0,0,0,0,0,0
1293527.150,5044354.270,314.800,2,353621313.094245,-15,7424,1,1,8,0,0,0,0,0,0
1293526.690,5044354.540,314.820,2,353621313.094252,-15,6912,1,1,8,0,0,0,0,0,0
1293526.200,5044354.830,314.770,2,353621313.094259,-15,7680,1,1,8,0,0,0,0,0,0
1293525.750,5044355.100,314.780,2,353621313.094265,-15,7936,1,1,8,0,0,0,0,0,0
1293525.290,5044355.380,314.770,2,353621313.094272,-15,8960,1,1,8,0,0,0,0,0,0
1293524.810,5044355.660,314.750,2,353621313.094279,-15,9216,1,1,8,0,0,0,0,0,0
1293524.350,5044355.930,314.740,2,353621313.094286,-15,8960,1,1,8,0,0,0,0,0,0
1293523.890,5044356.210,314.760,2,353621313.094292,-15,8960,1,1,8,0,0,0,0,0,0
1293523.430,5044356.480,314.730,2,353621313.094299,-15,10240,1,1,8,0,0,0,0,0,0
1293522.970,5044356.750,314.710,2,353621313.094306,-15,9984,1,1,8,0,0,0,0,0,0
1293522.520,5044357.020,314.680,2,353621313.094313,-15,10240,1,1,8,0,0,0,0,0,0
1293522.070,5044357.290,314.710,2,353621313.094320,-15,10496,1,1,8,0,0,0,0,0,0
1293521.600,5044357.570,314.670,2,353621313.094326,-15,10496,1,1,8,0,0,0,0,0,0
1293521.160,5044357.830,314.660,2,353621313.094333,-15,9472,1,1,8,0,0,0,0,0,0
1293520.710,5044358.100,314.700,2,353621313.094340,-15,8192,1,1,8,0,0,0,0,0,0
1293520.260,5044358.360,314.640,2,353621313.094347,-15,9216,1,1,8,0,0,0,0,0,0
1293519.810,5044358.630,314.640,2,353621313.094354,-15,8960,1,1,8,0,0,0,0,0,0
1293519.370,5044358.890,314.620,2,353621313.094361,-15,8704,1,1,8,0,0,0,0,0,0
1293518.920,5044359.160,314.600,2,353621313.094367,-16.002,8960,1,1,8,0,0,0,0,0,0
1293518.470,5044359.430,314.570,2,353621313.094374,-16.002,9984,1,1,8,0,0,0,0,0,0
1293518.030,5044359.690,314.580,2,353621313.094381,-16.002,9984,1,1,8,0,0,0,0,0,0
1293517.600,5044359.950,314.580,2,353621313.094388,-16.002,9216,1,1,8,0,0,0,0,0,0
1293517.160,5044360.210,314.560,2,353621313.094395,-16.002,8704,1,1,8,0,0,0,0,0,0
1293516.720,5044360.470,314.560,2,353621313.094401,-16.002,9472,1,1,8,0,0,0,0,0,0
1293516.290,5044360.720,314.520,2,353621313.094408,-16.002,9728,1,1,8,0,0,0,0,0,0
1293515.860,5044360.980,314.550,2,353621313.094415,-16.002,9984,1,1,8,0,0,0,0,0,0
1293515.420,5044361.240,314.500,2,353621313.094422,-16.002,9728,1,1,8,0,0,0,0,0,0
1293515.000,5044361.490,314.530,3,353621313.094429,-16.002,10240,1,1,8,0,0,0,0,0,0
1293514.560,5044361.750,314.470,2,353621313.094435,-16.002,11008,1,1,8,0,0,0,0,0,0
1293514.140,5044362.000,314.470,2,353621313.094442,-16.002,9984,1,1,8,0,0,0,0,0,0
1293513.710,5044362.260,314.460,2,353621313.094449,-16.002,10752,1,1,8,0,0,0,0,0,0
1293513.290,5044362.510,314.450,2,353621313.094456,-16.002,11264,1,1,8,0,0,0,0,0,0
1293512.870,5044362.760,314.430,2,353621313.094463,-16.002,10752,1,1,8,0,0,0,0,0,0
1293512.440,5044363.010,314.420,2,353621313.094469,-16.002,11776,1,1,8,0,0,0,0,0,0
1293512.030,5044363.260,314.380,2,353621313.094476,-16.002,10752,1,1,8,0,0,0,0,0,0
1293511.610,5044363.510,314.370,2,353621313.094483,-16.002,12032,1,1,8,0,0,0,0,0,0
1293511.200,5044363.750,314.380,2,353621313.094490,-16.002,14336,1,1,8,0,0,0,0,0,0
1293510.780,5044364.000,314.340,2,353621313.094496,-16.002,11008,1,1,8,0,0,0,0,0,0
1293510.360,5044364.250,314.310,2,353621313.094503,-16.002,13056,1,1,8,0,0,0,0,0,0
1293509.960,5044364.490,314.310,2,353621313.094510,-16.002,13568,1,1,8,0,0,0,0,0,0
1293509.540,5044364.740,314.300,2,353621313.094517,-16.002,13312,1,1,8,0,0,0,0,0,0
1293509.140,5044364.980,314.280,2,353621313.094524,-16.002,15104,1,1,8,0,0,0,0,0,0
1293508.730,5044365.220,314.260,2,353621313.094531,-16.002,14336,1,1,8,0,0,0,0,0,0
1293508.330,5044365.460,314.260,2,353621313.094537,-16.002,14080,1,1,8,0,0,0,0,0,0
1293507.930,5044365.700,314.230,2,353621313.094544,-16.002,12288,1,1,8,0,0,0,0,0,0
1293507.520,5044365.940,314.220,2,353621313.094551,-16.002,11520,1,1,8,0,0,0,0,0,0
1293507.120,5044366.180,314.200,2,353621313.094558,-16.002,12544,1,1,8,0,0,0,0,0,0
1293506.730,5044366.410,314.180,2,353621313.094565,-16.002,12800,1,1,8,0,0,0,0,0,0
1293506.330,5044366.650,314.150,2,353621313.094572,-16.002,14080,1,1,8,0,0,0,0,0,0
1293505.940,5044366.880,314.150,2,353621313.094578,-16.002,12800,1,1,8,0,0,0,0,0,0
1293505.540,5044367.120,314.130,2,353621313.094585,-16.002,14848,1,1,8,0,0,0,0,0,0
1293505.150,5044367.350,314.110,2,353621313.094592,-16.002,14336,1,1,8,0,0,0,0,0,0
1293504.760,5044367.590,314.070,2,353621313.094599,-16.002,14336,1,1,8,0,0,0,0,0,0
1293504.380,5044367.810,314.090,2,353621313.094605,-16.002,14336,1,1,8,0,0,0,0,0,0
1293503.980,5044368.050,314.060,2,353621313.094612,-16.002,14080,1,1,8,0,0,0,0,0,0
1293503.620,5044368.260,314.090,2,353621313.094619,-16.002,14336,1,1,8,0,0,0,0,0,0
1293503.240,5044368.490,314.100,2,353621313.094626,-16.002,13312,1,1,8,0,0,0,0,0,0
1293502.870,5044368.700,314.140,2,353621313.094633,-16.002,11776,1,1,8,0,0,0,0,0,0
1293502.490,5044368.930,314.130,2,353621313.094640,-16.002,10496,1,1,8,0,0,0,0,0,0
1293502.150,5044369.120,314.330,3,353621313.094646,-16.002,9472,1,1,8,0,0,0,0,0,0
1293501.780,5044369.340,314.300,3,353621313.094653,-16.002,9728,1,1,8,0,0,0,0,0,0
1293501.390,5044369.580,314.230,3,353621313.094660,-16.002,9216,1,1,8,0,0,0,0,0,0
1293501.010,5044369.810,314.170,3,353621313.094667,-16.002,9472,1,1,8,0,0,0,0,0,0
1293500.660,5044370.010,314.220,3,353621313.094673,-16.002,12288,1,1,8,0,0,0,0,0,0
1293500.330,5044370.200,314.390,3,353621313.094680,-16.002,16128,1,1,8,0,0,0,0,0,0
1293499.990,5044370.400,314.520,3,353621313.094687,-16.002,14848,1,1,8,0,0,0,0,0,0
1293499.640,5044370.610,314.540,3,353621313.094694,-16.002,15872,1,1,8,0,0,0,0,0,0
1293499.240,5044370.840,314.430,3,353621313.094701,-16.002,10752,1,1,8,0,0,0,0,0,0
1293498.760,5044371.160,313.830,2,353621313.094707,-16.002,8960,1,1,8,0,0,0,0,0,0
1293498.380,5044371.380,313.740,2,353621313.094714,-16.002,9984,1,1,8,0,0,0,0,0,0
1293499.750,5044370.280,321.480,1,353621313.094721,-16.002,6656,2,1,8,0,0,0,0,0,0
1293498.080,5044371.550,313.990,3,353621313.094721,-16.002,4608,2,2,8,0,0,0,0,0,0
1293499.680,5044370.280,322.730,1,353621313.094728,-16.002,6912,2,1,8,0,0,0,0,0,0
1293497.720,5044371.760,313.980,3,353621313.094728,-16.002,4608,2,2,8,0,0,0,0,0,0
1293497.270,5044372.050,313.500,3,353621313.094735,-16.002,8448,1,1,8,0,0,0,0,0,0
1293496.750,5044372.390,312.780,3,353621313.094742,-16.002,7424,1,1,8,0,0,0,0,0,0
1293496.330,5044372.650,312.440,2,353621313.094748,-16.002,8960,1,1,8,0,0,0,0,0,0
1293495.980,5044372.850,312.450,2,353621313.094755,-16.002,9728,1,1,8,0,0,0,0,0,0
1293495.640,5044373.060,312.440,2,353621313.094762,-16.002,9472,1,1,8,0,0,0,0,0,0
1293495.290,5044373.270,312.440,2,353621313.094769,-16.002,9728,1,1,8,0,0,0,0,0,0
1293494.960,5044373.460,312.450,2,353621313.094776,-16.002,9472,1,1,8,0,0,0,0,0,0
1293494.610,5044373.670,312.480,2,353621313.094782,-16.998,10240,1,1,8,0,0,0,0,0,0
1293494.270,5044373.870,312.450,2,353621313.094789,-16.998,9984,1,1,8,0,0,0,0,0,0
1293493.950,5044374.060,312.480,2,353621313.094796,-16.998,8960,1,1,8,0,0,0,0,0,0
1293493.620,5044374.260,312.480,2,353621313.094803,-16.998,7936,1,1,8,0,0,0,0,0,0
1293493.270,5044374.470,312.460,2,353621313.094810,-16.998,7936,1,1,8,0,0,0,0,0,0
1293493.570,5044374.460,312.520,2,353621313.097191,-16.998,8448,1,1,8,0,0,0,0,0,0
1293493.900,5044374.260,312.520,2,353621313.097198,-16.998,9472,1,1,8,0,0,0,0,0,0
1293494.240,5044374.060,312.520,2,353621313.097205,-16.998,12032,1,1,8,0,0,0,0,0,0
1293494.570,5044373.870,312.480,2,353621313.097211,-16.998,9472,1,1,8,0,0,0,0,0,0
1293494.910,5044373.660,312.490,2,353621313.097218,-16.998,11008,1,1,8,0,0,0,0,0,0
1293495.260,5044373.460,312.480,2,353621313.097225,-16.002,10496,1,1,8,0,0,0,0,0,0
1293495.600,5044373.250,312.480,2,353621313.097232,-16.002,11264,1,1,8,0,0,0,0,0,0
1293495.950,5044373.050,312.480,2,353621313.097239,-16.002,9984,1,1,8,0,0,0,0,0,0
1293496.310,5044372.840,312.490,2,353621313.097245,-16.002,9984,1,1,8,0,0,0,0,0,0
1293496.680,5044372.610,312.610,2,353621313.097252,-16.002,9472,1,1,8,0,0,0,0,0,0
1293497.350,5044372.160,314.020,3,353621313.097259,-16.002,9984,1,1,8,0,0,0,0,0,0
1293499.660,5044370.470,322.760,1,353621313.097266,-16.002,4864,2,1,8,0,0,0,0,0,0
1293497.730,5044371.940,314.110,3,353621313.097266,-16.002,7936,2,2,8,0,0,0,0,0,0
1293500.010,5044370.260,322.770,1,353621313.097273,-16.002,1792,2,1,8,0,0,0,0,0,0
1293498.090,5044371.720,314.170,3,353621313.097273,-16.002,5376,2,2,8,0,0,0,0,0,0
1293500.070,5044370.280,321.430,1,353621313.097279,-16.002,1792,2,1,8,0,0,0,0,0,0
1293498.380,5044371.560,313.850,3,353621313.097279,-16.002,8704,2,2,8,0,0,0,0,0,0
1293498.730,5044371.350,313.800,2,353621313.097286,-16.002,12032,1,1,8,0,0,0,0,0,0
1293499.200,5044371.060,314.320,3,353621313.097293,-16.002,11520,1,1,8,0,0,0,0,0,0
1293499.630,5044370.800,314.590,3,353621313.097300,-16.002,14848,1,1,8,0,0,0,0,0,0
1293499.980,5044370.590,314.500,3,353621313.097307,-16.002,15872,1,1,8,0,0,0,0,0,0
1293500.330,5044370.390,314.420,3,353621313.097313,-16.002,19712,1,1,8,0,0,0,0,0,0
1293500.660,5044370.200,314.270,3,353621313.097320,-16.002,16128,1,1,8,0,0,0,0,0,0
1293501.000,5044370.010,314.110,2,353621313.097327,-16.002,11264,1,1,8,0,0,0,0,0,0
1293501.380,5044369.770,314.200,3,353621313.097334,-16.002,10752,1,1,8,0,0,0,0,0,0
1293501.780,5044369.530,314.290,3,353621313.097341,-16.002,9472,1,1,8,0,0,0,0,0,0
1293502.160,5044369.310,314.320,3,353621313.097347,-16.002,11264,1,1,8,0,0,0,0,0,0
1293502.510,5044369.110,314.170,3,353621313.097354,-16.002,11776,1,1,8,0,0,0,0,0,0
1293502.870,5044368.900,314.120,2,353621313.097361,-16.002,12544,1,1,8,0,0,0,0,0,0
1293503.250,5044368.670,314.110,2,353621313.097368,-16.002,14080,1,1,8,0,0,0,0,0,0
1293503.620,5044368.460,314.050,2,353621313.097375,-16.002,14592,1,1,8,0,0,0,0,0,0
1293504.000,5044368.230,314.050,2,353621313.097382,-16.002,15360,1,1,8,0,0,0,0,0,0
1293504.390,5044368.000,314.040,2,353621313.097388,-16.002,15104,1,1,8,0,0,0,0,0,0
1293504.780,5044367.770,314.080,2,353621313.097395,-16.002,15872,1,1,8,0,0,0,0,0,0
1293505.180,5044367.540,314.090,2,353621313.097402,-16.002,14080,1,1,8,0,0,0,0,0,0
1293505.570,5044367.300,314.140,2,353621313.097409,-16.002,14592,1,1,8,0,0,0,0,0,0
1293505.970,5044367.070,314.140,2,353621313.097415,-16.002,13824,1,1,8,0,0,0,0,0,0
1293506.370,5044366.830,314.160,2,353621313.097422,-16.002,14080,1,1,8,0,0,0,0,0,0
1293506.770,5044366.590,314.180,2,353621313.097429,-16.002,12800,1,1,8,0,0,0,0,0,0
1293507.180,5044366.350,314.210,2,353621313.097436,-16.002,11264,1,1,8,0,0,0,0,0,0
1293507.560,5044366.120,314.190,2,353621313.097443,-16.002,11264,1,1,8,0,0,0,0,0,0
1293507.980,5044365.870,314.240,2,353621313.097450,-16.002,13568,1,1,8,0,0,0,0,0,0
1293508.380,5044365.630,314.230,2,353621313.097456,-16.002,16384,1,1,8,0,0,0,0,0,0
1293508.800,5044365.390,314.280,3,353621313.097463,-16.002,15616,1,1,8,0,0,0,0,0,0
1293509.200,5044365.150,314.260,2,353621313.097470,-16.002,15872,1,1,8,0,0,0,0,0,0
1293509.620,5044364.900,314.310,3,353621313.097477,-16.002,14848,1,1,8,0,0,0,0,0,0
1293510.020,5044364.660,314.290,2,353621313.097484,-16.002,13824,1,1,8,0,0,0,0,0,0
1293510.440,5044364.420,314.320,2,353621313.097490,-16.002,12544,1,1,8,0,0,0,0,0,0
1293510.850,5044364.170,314.320,2,353621313.097497,-16.002,11008,1,1,8,0,0,0,0,0,0
1293511.280,5044363.920,314.360,2,353621313.097504,-16.002,12288,1,1,8,0,0,0,0,0,0
1293511.690,5044363.670,314.370,2,353621313.097511,-16.002,13056,1,1,8,0,0,0,0,0,0
1293512.120,5044363.420,314.400,2,353621313.097517,-16.002,12288,1,1,8,0,0,0,0,0,0
1293512.540,5044363.170,314.430,2,353621313.097524,-16.002,11776,1,1,8,0,0,0,0,0,0
1293512.960,5044362.920,314.400,2,353621313.097531,-16.002,12032,1,1,8,0,0,0,0,0,0
1293513.390,5044362.670,314.420,2,353621313.097538,-16.002,11264,1,1,8,0,0,0,0,0,0
1293513.820,5044362.420,314.470,2,353621313.097545,-16.002,11008,1,1,8,0,0,0,0,0,0
1293514.250,5044362.160,314.470,2,353621313.097552,-16.002,11008,1,1,8,0,0,0,0,0,0
1293514.680,5044361.910,314.480,2,353621313.097558,-16.002,12288,1,1,8,0,0,0,0,0,0
1293515.110,5044361.650,314.490,2,353621313.097565,-16.002,10496,1,1,8,0,0,0,0,0,0
1293515.550,5044361.390,314.520,3,353621313.097572,-16.002,10240,1,1,8,0,0,0,0,0,0
1293515.970,5044361.140,314.500,2,353621313.097579,-16.002,11264,1,1,8,0,0,0,0,0,0
1293516.420,5044360.870,314.540,2,353621313.097586,-16.002,9728,1,1,8,0,0,0,0,0,0
1293516.850,5044360.620,314.540,2,353621313.097592,-16.002,9984,1,1,8,0,0,0,0,0,0
1293517.300,5044360.350,314.570,2,353621313.097599,-16.002,8448,1,1,8,0,0,0,0,0,0
1293517.740,5044360.090,314.580,2,353621313.097606,-16.002,10240,1,1,8,0,0,0,0,0,0
1293518.180,5044359.830,314.580,2,353621313.097613,-16.002,10240,1,1,8,0,0,0,0,0,0
1293518.630,5044359.570,314.580,2,353621313.097620,-16.002,10240,1,1,8,0,0,0,0,0,0
1293519.080,5044359.300,314.610,2,353621313.097626,-16.002,9472,1,1,8,0,0,0,0,0,0
1293519.530,5044359.030,314.650,2,353621313.097633,-15,9984,1,1,8,0,0,0,0,0,0
1293519.970,5044358.770,314.630,2,353621313.097640,-15,10496,1,1,8,0,0,0,0,0,0
1293520.420,5044358.500,314.640,2,353621313.097647,-15,11008,1,1,8,0,0,0,0,0,0
1293520.880,5044358.230,314.680,2,353621313.097654,-15,10752,1,1,8,0,0,0,0,0,0
1293521.330,5044357.960,314.670,2,353621313.097660,-15,11008,1,1,8,0,0,0,0,0,0
1293521.790,5044357.700,314.670,2,353621313.097667,-15,11264,1,1,8,0,0,0,0,0,0
1293522.240,5044357.430,314.660,2,353621313.097674,-15,11264,1,1,8,0,0,0,0,0,0
1293522.710,5044357.150,314.710,2,353621313.097681,-15,10496,1,1,8,0,0,0,0,0,0
1293523.170,5044356.880,314.720,2,353621313.097688,-15,9984,1,1,8,0,0,0,0,0,0
1293523.630,5044356.600,314.750,2,353621313.097694,-15,9728,1,1,8,0,0,0,0,0,0
1293524.090,5044356.330,314.740,2,353621313.097701,-15,9472,1,1,8,0,0,0,0,0,0
1293524.560,5044356.050,314.760,2,353621313.097708,-15,8448,1,1,8,0,0,0,0,0,0
1293525.020,5044355.780,314.760,2,353621313.097715,-15,7936,1,1,8,0,0,0,0,0,0
1293525.510,5044355.490,314.810,3,353621313.097722,-15,7424,1,1,8,0,0,0,0,0,0
1293525.960,5044355.220,314.780,2,353621313.097728,-15,7680,1,1,8,0,0,0,0,0,0
1293526.440,5044354.940,314.820,2,353621313.097735,-15,6912,1,1,8,0,0,0,0,0,0
1293526.920,5044354.660,314.820,2,353621313.097742,-15,7936,1,1,8,0,0,0,0,0,0
1293527.390,5044354.380,314.810,2,353621313.097749,-15,7168,1,1,8,0,0,0,0,0,0
1293527.860,5044354.100,314.800,2,353621313.097756,-15,8192,1,1,8,0,0,0,0,0,0
1293528.340,5044353.820,314.840,2,353621313.097763,-15,6912,1,1,8,0,0,0,0,0,0
1293528.820,5044353.530,314.840,2,353621313.097769,-15,7936,1,1,8,0,0,0,0,0,0
1293529.290,5044353.250,314.830,2,353621313.097776,-15,7168,1,1,8,0,0,0,0,0,0
1293529.510,5044354.210,314.830,2,353621313.114133,-15,5376,1,1,8,0,0,0,0,0,0
1293529.030,5044354.500,314.800,2,353621313.114140,-15,4608,1,1,8,0,0,0,0,0,0
1293528.560,5044354.780,314.810,2,353621313.114146,-15,5632,1,1,8,0,0,0,0,0,0
1293528.080,5044355.060,314.790,2,353621313.114153,-15,5888,1,1,8,0,0,0,0,0,0
1293527.620,5044355.340,314.830,2,353621313.114160,-15,5632,1,1,8,0,0,0,0,0,0
1293527.130,5044355.630,314.760,2,353621313.114167,-15,5888,1,1,8,0,0,0,0,0,0
1293526.670,5044355.900,314.790,2,353621313.114174,-15,5376,1,1,8,0,0,0,0,0,0
1293526.200,5044356.180,314.780,2,353621313.114180,-15,5888,1,1,8,0,0,0,0,0,0
1293525.740,5044356.450,314.800,2,353621313.114187,-15,5120,1,1,8,0,0,0,0,0,0
1293525.270,5044356.740,314.760,2,353621313.114194,-15,5888,1,1,8,0,0,0,0,0,0
1293524.800,5044357.010,314.770,2,353621313.114201,-15,6656,1,1,8,0,0,0,0,0,0
1293524.340,5044357.290,314.730,2,353621313.114208,-15,6656,1,1,8,0,0,0,0,0,0
1293523.880,5044357.560,314.750,2,353621313.114214,-15,6144,1,1,8,0,0,0,0,0,0
1293523.420,5044357.830,314.740,2,353621313.114221,-15,6144,1,1,8,0,0,0,0,0,0
1293522.960,5044358.110,314.710,2,353621313.114228,-15,6400,1,1,8,0,0,0,0,0,0
1293522.490,5044358.380,314.690,2,353621313.114235,-15,6912,1,1,8,0,0,0,0,0,0
1293522.050,5044358.650,314.720,2,353621313.114242,-15,6656,1,1,8,0,0,0,0,0,0
1293521.590,5044358.920,314.680,2,353621313.114248,-15,6400,1,1,8,0,0,0,0,0,0
1293521.140,5044359.190,314.680,2,353621313.114255,-15,6912,1,1,8,0,0,0,0,0,0
1293520.680,5044359.460,314.650,2,353621313.114262,-15,6912,1,1,8,0,0,0,0,0,0
1293520.230,5044359.720,314.640,2,353621313.114269,-15,6912,1,1,8,0,0,0,0,0,0
1293519.780,5044359.990,314.620,2,353621313.114276,-15,7168,1,1,8,0,0,0,0,0,0
1293519.340,5044360.260,314.630,2,353621313.114282,-16.002,7424,1,1,8,0,0,0,0,0,0
1293518.890,5044360.530,314.570,2,353621313.114289,-16.002,8448,1,1,8,0,0,0,0,0,0
1293518.440,5044360.800,314.550,2,353621313.114296,-16.002,8448,1,1,8,0,0,0,0,0,0
1293518.000,5044361.060,314.530,2,353621313.114303,-16.002,9984,1,1,8,0,0,0,0,0,0
1293517.560,5044361.320,314.530,2,353621313.114310,-16.002,9216,1,1,8,0,0,0,0,0,0
1293517.110,5044361.590,314.480,2,353621313.114316,-16.002,9472,1,1,8,0,0,0,0,0,0
1293516.670,5044361.840,314.500,2,353621313.114323,-16.002,9472,1,1,8,0,0,0,0,0,0
1293516.240,5044362.100,314.470,2,353621313.114330,-16.002,8960,1,1,8,0,0,0,0,0,0
1293515.800,5044362.360,314.470,2,353621313.114337,-16.002,9472,1,1,8,0,0,0,0,0,0
1293515.370,5044362.620,314.430,2,353621313.114344,-16.002,8448,1,1,8,0,0,0,0,0,0
1293514.950,5044362.870,314.440,2,353621313.114351,-16.002,8704,1,1,8,0,0,0,0,0,0
1293514.500,5044363.130,314.410,2,353621313.114357,-16.002,8448,1,1,8,0,0,0,0,0,0
1293514.080,5044363.390,314.390,2,353621313.114364,-16.002,9472,1,1,8,0,0,0,0,0,0
1293513.650,5044363.640,314.380,2,353621313.114371,-16.002,9472,1,1,8,0,0,0,0,0,0
1293513.240,5044363.890,314.390,2,353621313.114378,-16.002,8960,1,1,8,0,0,0,0,0,0
1293512.800,5044364.140,314.340,2,353621313.114384,-16.002,8704,1,1,8,0,0,0,0,0,0
1293512.380,5044364.390,314.360,2,353621313.114391,-16.002,10240,1,1,8,0,0,0,0,0,0
1293511.970,5044364.640,314.340,2,353621313.114398,-16.002,9728,1,1,8,0,0,0,0,0,0
1293511.550,5044364.890,314.320,2,353621313.114405,-16.002,10240,1,1,8,0,0,0,0,0,0
1293511.130,5044365.140,314.310,2,353621313.114412,-16.002,9728,1,1,8,0,0,0,0,0,0
1293510.730,5044365.380,314.320,2,353621313.114419,-16.002,11264,1,1,8,0,0,0,0,0,0
1293510.300,5044365.630,314.290,2,353621313.114425,-16.002,11776,1,1,8,0,0,0,0,0,0
1293509.890,5044365.880,314.260,2,353621313.114432,-16.002,11520,1,1,8,0,0,0,0,0,0
1293509.490,5044366.110,314.280,2,353621313.114439,-16.002,9216,1,1,8,0,0,0,0,0,0
1293509.080,5044366.360,314.250,2,353621313.114446,-16.002,12288,1,1,8,0,0,0,0,0,0
1293508.670,5044366.600,314.220,2,353621313.114453,-16.002,13056,1,1,8,0,0,0,0,0,0
1293508.250,5044366.850,314.190,2,353621313.114459,-16.002,11520,1,1,8,0,0,0,0,0,0
1293507.850,5044367.090,314.180,2,353621313.114466,-16.002,9984,1,1,8,0,0,0,0,0,0
1293507.450,5044367.330,314.150,2,353621313.114473,-16.002,10496,1,1,8,0,0,0,0,0,0
1293507.040,5044367.570,314.090,2,353621313.114480,-16.002,10752,1,1,8,0,0,0,0,0,0
1293506.650,5044367.800,314.110,2,353621313.114486,-16.002,11776,1,1,8,0,0,0,0,0,0
1293506.240,5044368.050,314.050,2,353621313.114493,-16.002,10752,1,1,8,0,0,0,0,0,0
1293505.850,5044368.280,314.040,2,353621313.114500,-16.002,10240,1,1,8,0,0,0,0,0,0
1293505.450,5044368.520,314.020,2,353621313.114507,-16.002,10496,1,1,8,0,0,0,0,0,0
1293505.070,5044368.750,314.010,2,353621313.114514,-16.002,11776,1,1,8,0,0,0,0,0,0
1293504.660,5044368.990,313.960,2,353621313.114521,-16.002,12800,1,1,8,0,0,0,0,0,0
1293504.280,5044369.210,313.960,2,353621313.114527,-16.002,14336,1,1,8,0,0,0,0,0,0
1293503.890,5044369.450,313.920,2,353621313.114534,-16.002,15872,1,1,8,0,0,0,0,0,0
1293503.510,5044369.670,313.950,2,353621313.114541,-16.002,14080,1,1,8,0,0,0,0,0,0
1293503.110,5044369.910,313.890,2,353621313.114548,-16.002,14848,1,1,8,0,0,0,0,0,0
1293502.750,5044370.130,313.900,2,353621313.114555,-16.002,14336,1,1,8,0,0,0,0,0,0
1293502.370,5044370.350,313.920,2,353621313.114561,-16.002,13824,1,1,8,0,0,0,0,0,0
1293502.000,5044370.570,313.920,2,353621313.114568,-16.002,12544,1,1,8,0,0,0,0,0,0
1293501.620,5044370.800,313.910,2,353621313.114575,-16.002,12032,1,1,8,0,0,0,0,0,0
1293501.280,5044370.990,314.070,3,353621313.114582,-16.002,12800,1,1,8,0,0,0,0,0,0
1293500.990,5044371.150,314.390,3,353621313.114588,-16.002,14848,1,1,8,0,0,0,0,0,0
1293500.630,5044371.360,314.450,3,353621313.114595,-16.002,15360,1,1,8,0,0,0,0,0,0
1293500.260,5044371.580,314.430,3,353621313.114602,-16.002,15104,1,1,8,0,0,0,0,0,0
1293499.790,5044371.880,313.950,3,353621313.114609,-16.002,10752,1,1,8,0,0,0,0,0,0
1293499.390,5044372.130,313.770,2,353621313.114616,-16.002,11776,1,1,8,0,0,0,0,0,0
1293500.730,5044371.050,321.400,1,353621313.114623,-16.002,1280,2,1,8,0,0,0,0,0,0
1293499.020,5044372.340,313.750,2,353621313.114623,-16.002,7936,2,2,8,0,0,0,0,0,0
1293500.680,5044371.020,322.780,1,353621313.114630,-16.002,2048,2,1,8,0,0,0,0,0,0
1293498.650,5044372.560,313.700,2,353621313.114630,-16.002,2816,2,2,8,0,0,0,0,0,0
1293500.310,5044371.240,322.750,1,353621313.114636,-16.002,4096,2,1,8,0,0,0,0,0,0
1293498.280,5044372.780,313.680,2,353621313.114636,-16.002,6912,2,2,8,0,0,0,0,0,0
1293497.890,5044373.030,313.470,2,353621313.114643,-16.002,8448,1,1,8,0,0,0,0,0,0
1293497.400,5044373.340,312.910,2,353621313.114650,-16.002,10240,1,1,8,0,0,0,0,0,0
1293497.020,5044373.560,312.790,2,353621313.114657,-16.002,11264,1,1,8,0,0,0,0,0,0
1293496.670,5044373.780,312.760,2,353621313.114663,-16.002,10752,1,1,8,0,0,0,0,0,0
1293496.310,5044373.990,312.710,2,353621313.114670,-16.002,9984,1,1,8,0,0,0,0,0,0
1293495.960,5044374.200,312.710,2,353621313.114677,-16.002,9216,1,1,8,0,0,0,0,0,0
1293495.610,5044374.410,312.720,2,353621313.114684,-16.998,9984,1,1,8,0,0,0,0,0,0
1293495.710,5044374.500,312.740,2,353621313.117154,-16.998,10752,1,1,8,0,0,0,0,0,0
1293496.060,5044374.290,312.730,2,353621313.117161,-16.002,10752,1,1,8,0,0,0,0,0,0
1293496.420,5044374.070,312.760,2,353621313.117167,-16.002,10752,1,1,8,0,0,0,0,0,0
1293496.760,5044373.870,312.780,2,353621313.117174,-16.002,11520,1,1,8,0,0,0,0,0,0
1293497.140,5044373.640,312.870,2,353621313.117181,-16.002,10752,1,1,8,0,0,0,0,0,0
1293497.520,5044373.420,312.960,2,353621313.117188,-16.002,9984,1,1,8,0,0,0,0,0,0
1293498.000,5044373.110,313.520,2,353621313.117194,-16.002,9728,1,1,8,0,0,0,0,0,0
1293500.420,5044371.340,322.720,1,353621313.117201,-16.002,5120,2,1,8,0,0,0,0,0,0
1293498.440,5044372.840,313.880,3,353621313.117201,-16.002,6144,2,2,8,0,0,0,0,0,0
1293500.780,5044371.120,322.760,1,353621313.117208,-16.002,2048,2,1,8,0,0,0,0,0,0
1293498.770,5044372.640,313.750,3,353621313.117208,-16.002,4352,2,2,8,0,0,0,0,0,0
1293499.130,5044372.440,313.720,2,353621313.117215,-16.002,10496,1,1,8,0,0,0,0,0,0
1293499.500,5044372.210,313.770,2,353621313.117222,-16.002,13056,1,1,8,0,0,0,0,0,0
1293499.930,5044371.950,314.060,3,353621313.117229,-16.002,11520,1,1,8,0,0,0,0,0,0
1293500.380,5044371.670,314.390,3,353621313.117235,-16.002,16128,1,1,8,0,0,0,0,0,0
1293500.750,5044371.450,314.400,3,353621313.117242,-16.002,16896,1,1,8,0,0,0,0,0,0
1293501.100,5044371.250,314.320,3,353621313.117249,-16.002,15360,1,1,8,0,0,0,0,0,0
1293501.390,5044371.090,313.950,3,353621313.117256,-16.002,12800,1,1,8,0,0,0,0,0,0
1293501.740,5044370.890,313.860,2,353621313.117263,-16.002,13824,1,1,8,0,0,0,0,0,0
1293502.130,5044370.660,313.910,2,353621313.117269,-16.002,15104,1,1,8,0,0,0,0,0,0
1293502.510,5044370.430,313.900,2,353621313.117276,-16.002,16640,1,1,8,0,0,0,0,0,0
1293502.890,5044370.210,313.880,2,353621313.117283,-16.002,16128,1,1,8,0,0,0,0,0,0
1293503.270,5044369.980,313.910,2,353621313.117290,-16.002,17152,1,1,8,0,0,0,0,0,0
1293503.660,5044369.750,313.920,2,353621313.117296,-16.002,16640,1,1,8,0,0,0,0,0,0
1293504.050,5044369.520,313.950,2,353621313.117303,-16.002,16128,1,1,8,0,0,0,0,0,0
1293504.440,5044369.280,313.970,2,353621313.117310,-16.002,14336,1,1,8,0,0,0,0,0,0
1293504.830,5044369.060,313.990,2,353621313.117317,-16.002,12544,1,1,8,0,0,0,0,0,0
1293505.230,5044368.820,313.990,2,353621313.117324,-16.002,11264,1,1,8,0,0,0,0,0,0
1293505.630,5044368.580,314.030,2,353621313.117331,-16.002,11520,1,1,8,0,0,0,0,0,0
1293506.020,5044368.350,314.040,2,353621313.117337,-16.002,11264,1,1,8,0,0,0,0,0,0
1293506.420,5044368.110,314.080,2,353621313.117344,-16.002,11776,1,1,8,0,0,0,0,0,0
1293506.820,5044367.870,314.080,2,353621313.117351,-16.002,12800,1,1,8,0,0,0,0,0,0
1293507.240,5044367.620,314.140,2,353621313.117358,-16.002,11776,1,1,8,0,0,0,0,0,0
1293507.640,5044367.390,314.160,2,353621313.117365,-16.002,11264,1,1,8,0,0,0,0,0,0
1293508.050,5044367.150,314.180,2,353621313.117371,-16.002,11008,1,1,8,0,0,0,0,0,0
1293508.450,5044366.910,314.180,2,353621313.117378,-16.002,13056,1,1,8,0,0,0,0,0,0
1293508.870,5044366.660,314.230,2,353621313.117385,-16.002,13824,1,1,8,0,0,0,0,0,0
1293509.280,5044366.410,314.240,2,353621313.117392,-16.002,11776,1,1,8,0,0,0,0,0,0
1293509.690,5044366.170,314.270,2,353621313.117399,-16.002,11520,1,1,8,0,0,0,0,0,0
1293510.100,5044365.930,314.260,2,353621313.117405,-16.002,13568,1,1,8,0,0,0,0,0,0
1293510.510,5044365.680,314.260,2,353621313.117412,-16.002,13568,1,1,8,0,0,0,0,0,0
1293510.940,5044365.430,314.300,2,353621313.117419,-16.002,11264,1,1,8,0,0,0,0,0,0
1293511.360,5044365.180,314.320,2,353621313.117426,-16.002,11776,1,1,8,0,0,0,0,0,0
1293511.780,5044364.930,314.320,2,353621313.117433,-16.002,9728,1,1,8,0,0,0,0,0,0
1293512.200,5044364.680,314.330,2,353621313.117440,-16.002,10752,1,1,8,0,0,0,0,0,0
1293512.620,5044364.430,314.360,2,353621313.117446,-16.002,10240,1,1,8,0,0,0,0,0,0
1293513.050,5044364.180,314.380,2,353621313.117453,-16.002,10496,1,1,8,0,0,0,0,0,0
1293513.480,5044363.930,314.360,2,353621313.117460,-16.002,10496,1,1,8,0,0,0,0,0,0
1293513.910,5044363.670,314.420,3,353621313.117467,-16.002,10240,1,1,8,0,0,0,0,0,0
1293514.340,5044363.420,314.420,2,353621313.117473,-16.002,8960,1,1,8,0,0,0,0,0,0
1293514.770,5044363.160,314.420,2,353621313.117480,-16.002,10240,1,1,8,0,0,0,0,0,0
1293515.200,5044362.910,314.410,2,353621313.117487,-16.002,9216,1,1,8,0,0,0,0,0,0
1293515.640,5044362.640,314.460,2,353621313.117494,-16.002,9728,1,1,8,0,0,0,0,0,0
1293516.070,5044362.390,314.440,2,353621313.117501,-16.002,9984,1,1,8,0,0,0,0,0,0
1293516.510,5044362.130,314.470,2,353621313.117507,-16.002,9984,1,1,8,0,0,0,0,0,0
1293516.950,5044361.870,314.480,2,353621313.117514,-16.002,10496,1,1,8,0,0,0,0,0,0
1293517.400,5044361.600,314.530,2,353621313.117521,-16.002,9984,1,1,8,0,0,0,0,0,0
1293517.840,5044361.340,314.520,2,353621313.117528,-16.002,8960,1,1,8,0,0,0,0,0,0
1293518.290,5044361.070,314.570,2,353621313.117535,-16.002,9472,1,1,8,0,0,0,0,0,0
1293518.730,5044360.810,314.570,2,353621313.117542,-16.002,7936,1,1,8,0,0,0,0,0,0
1293519.190,5044360.540,314.610,2,353621313.117548,-16.002,7424,1,1,8,0,0,0,0,0,0
1293519.650,5044360.270,314.650,2,353621313.117555,-16.002,7168,1,1,8,0,0,0,0,0,0
1293520.100,5044360.000,314.650,2,353621313.117562,-15,7936,1,1,8,0,0,0,0,0,0
1293520.540,5044359.740,314.650,2,353621313.117569,-15,7680,1,1,8,0,0,0,0,0,0
1293521.000,5044359.470,314.670,2,353621313.117575,-15,7424,1,1,8,0,0,0,0,0,0
1293521.460,5044359.200,314.690,2,353621313.117582,-15,7424,1,1,8,0,0,0,0,0,0
1293521.920,5044358.920,314.700,2,353621313.117589,-15,7424,1,1,8,0,0,0,0,0,0
1293522.380,5044358.650,314.710,2,353621313.117596,-15,7168,1,1,8,0,0,0,0,0,0
1293522.840,5044358.380,314.730,3,353621313.117603,-15,6912,1,1,8,0,0,0,0,0,0
1293523.300,5044358.110,314.700,2,353621313.117610,-15,6912,1,1,8,0,0,0,0,0,0
1293523.760,5044357.830,314.740,2,353621313.117616,-15,6656,1,1,8,0,0,0,0,0,0
1293524.230,5044357.560,314.760,2,353621313.117623,-15,6656,1,1,8,0,0,0,0,0,0
1293524.690,5044357.280,314.760,2,353621313.117630,-15,6400,1,1,8,0,0,0,0,0,0
1293525.150,5044357.010,314.750,2,353621313.117637,-15,6144,1,1,8,0,0,0,0,0,0
1293525.630,5044356.720,314.800,2,353621313.117644,-15,6144,1,1,8,0,0,0,0,0,0
1293526.100,5044356.450,314.770,2,353621313.117650,-15,6144,1,1,8,0,0,0,0,0,0
1293526.570,5044356.170,314.790,2,353621313.117657,-15,6400,1,1,8,0,0,0,0,0,0
1293527.040,5044355.890,314.780,2,353621313.117664,-15,6400,1,1,8,0,0,0,0,0,0
1293527.530,5044355.600,314.810,3,353621313.117671,-15,5888,1,1,8,0,0,0,0,0,0
1293528.000,5044355.330,314.780,2,353621313.117678,-15,6400,1,1,8,0,0,0,0,0,0
1293528.480,5044355.040,314.820,2,353621313.117684,-15,6400,1,1,8,0,0,0,0,0,0
1293528.960,5044354.760,314.800,2,353621313.117691,-15,5632,1,1,8,0,0,0,0,0,0
1293529.440,5044354.470,314.810,2,353621313.117698,-15,6144,1,1,8,0,0,0,0,0,0
1293529.470,5044355.530,314.810,2,353621313.134068,-15,5376,1,1,8,0,0,0,0,0,0
1293529.000,5044355.810,314.780,2,353621313.134075,-15,5376,1,1,8,0,0,0,0,0,0
1293528.520,5044356.090,314.800,2,353621313.134082,-15,5120,1,1,8,0,0,0,0,0,0
1293528.050,5044356.380,314.750,2,353621313.134089,-15,5120,1,1,8,0,0,0,0,0,0
1293527.580,5044356.650,314.790,2,353621313.134095,-15,5632,1,1,8,0,0,0,0,0,0
1293527.120,5044356.930,314.790,2,353621313.134102,-15,6144,1,1,8,0,0,0,0,0,0
1293526.660,5044357.200,314.780,2,353621313.134109,-15,5888,1,1,8,0,0,0,0,0,0
1293526.190,5044357.480,314.760,2,353621313.134116,-15,6144,1,1,8,0,0,0,0,0,0
1293525.720,5044357.750,314.780,2,353621313.134123,-15,6400,1,1,8,0,0,0,0,0,0
1293525.270,5044358.030,314.750,2,353621313.134130,-15,6144,1,1,8,0,0,0,0,0,0
1293524.810,5044358.300,314.760,2,353621313.134136,-15,5376,1,1,8,0,0,0,0,0,0
1293524.340,5044358.580,314.740,2,353621313.134143,-15,6400,1,1,8,0,0,0,0,0,0
1293523.900,5044358.840,314.750,2,353621313.134150,-15,6400,1,1,8,0,0,0,0,0,0
1293523.430,5044359.120,314.710,2,353621313.134157,-15,5888,1,1,8,0,0,0,0,0,0
1293522.980,5044359.390,314.730,2,353621313.134163,-15,5888,1,1,8,0,0,0,0,0,0
1293522.530,5044359.650,314.710,2,353621313.134170,-15,6912,1,1,8,0,0,0,0,0,0
1293522.080,5044359.920,314.720,3,353621313.134177,-15,5632,1,1,8,0,0,0,0,0,0
1293521.620,5044360.190,314.670,2,353621313.134184,-15,5888,1,1,8,0,0,0,0,0,0
1293521.170,5044360.460,314.660,2,353621313.134191,-15,5888,1,1,8,0,0,0,0,0,0
1293520.730,5044360.730,314.630,2,353621313.134197,-15,5632,1,1,8,0,0,0,0,0,0
1293520.280,5044360.990,314.650,2,353621313.134204,-16.002,6656,1,1,8,0,0,0,0,0,0
1293519.830,5044361.260,314.610,2,353621313.134211,-16.002,5632,1,1,8,0,0,0,0,0,0
1293519.390,5044361.510,314.620,2,353621313.134218,-16.002,6144,1,1,8,0,0,0,0,0,0
1293518.950,5044361.780,314.580,2,353621313.134225,-16.002,6400,1,1,8,0,0,0,0,0,0
1293518.520,5044362.030,314.610,2,353621313.134232,-16.002,6656,1,1,8,0,0,0,0,0,0
1293518.070,5044362.300,314.560,2,353621313.134238,-16.002,6656,1,1,8,0,0,0,0,0,0
1293517.640,5044362.560,314.550,2,353621313.134245,-16.002,6656,1,1,8,0,0,0,0,0,0
1293517.200,5044362.820,314.540,2,353621313.134252,-16.002,7424,1,1,8,0,0,0,0,0,0
1293516.770,5044363.080,314.520,2,353621313.134259,-16.002,6400,1,1,8,0,0,0,0,0,0
1293516.340,5044363.330,314.500,2,353621313.134266,-16.002,6912,1,1,8,0,0,0,0,0,0
1293515.910,5044363.590,314.490,2,353621313.134272,-16.002,7168,1,1,8,0,0,0,0,0,0
1293515.480,5044363.840,314.480,2,353621313.134279,-16.002,6656,1,1,8,0,0,0,0,0,0
1293515.050,5044364.100,314.460,2,353621313.134286,-16.002,6912,1,1,8,0,0,0,0,0,0
1293514.620,5044364.360,314.420,2,353621313.134293,-16.002,7680,1,1,8,0,0,0,0,0,0
1293514.200,5044364.610,314.400,2,353621313.134300,-16.002,7936,1,1,8,0,0,0,0,0,0
1293513.770,5044364.860,314.370,2,353621313.134306,-16.002,8448,1,1,8,0,0,0,0,0,0
1293513.340,5044365.120,314.350,2,353621313.134313,-16.002,8960,1,1,8,0,0,0,0,0,0
1293512.920,5044365.370,314.310,2,353621313.134320,-16.002,9472,1,1,8,0,0,0,0,0,0
1293512.520,5044365.610,314.320,2,353621313.134327,-16.002,9472,1,1,8,0,0,0,0,0,0
1293512.090,5044365.860,314.280,2,353621313.134334,-16.002,10496,1,1,8,0,0,0,0,0,0
1293511.690,5044366.100,314.280,2,353621313.134340,-16.002,9472,1,1,8,0,0,0,0,0,0
1293511.270,5044366.350,314.240,2,353621313.134347,-16.002,8704,1,1,8,0,0,0,0,0,0
1293510.860,5044366.600,314.240,2,353621313.134354,-16.002,9984,1,1,8,0,0,0,0,0,0
1293510.450,5044366.840,314.220,2,353621313.134361,-16.002,9216,1,1,8,0,0,0,0,0,0
1293510.050,5044367.070,314.230,2,353621313.134367,-16.002,8960,1,1,8,0,0,0,0,0,0
1293509.640,5044367.320,314.180,2,353621313.134374,-16.002,9472,1,1,8,0,0,0,0,0,0
1293509.240,5044367.560,314.220,2,353621313.134381,-16.002,9216,1,1,8,0,0,0,0,0,0
1293508.830,5044367.800,314.170,2,353621313.134388,-16.002,10496,1,1,8,0,0,0,0,0,0
1293508.430,5044368.040,314.140,2,353621313.134395,-16.002,11264,1,1,8,0,0,0,0,0,0
1293508.020,5044368.280,314.080,2,353621313.134402,-16.002,12032,1,1,8,0,0,0,0,0,0
